ply
format ascii 1.0
comment Created by Open3D
element vertex 1394
property double x
property double y
property double z
property uchar red
property uchar green
property uchar blue
end_header
0.354317 -0.468049 1.531 80 40 25
0.357233 -0.468049 1.531 88 47 30
0.36015 -0.468049 1.531 88 47 30
0.363066 -0.468049 1.531 98 45 30
0.365982 -0.468049 1.531 101 48 33
0.368898 -0.468049 1.531 110 54 38
0.372543 -0.468966 1.534 108 52 36
0.376199 -0.469883 1.537 114 57 38
0.379127 -0.469883 1.537 116 59 40
0.381806 -0.469577 1.536 122 56 34
0.384481 -0.469271 1.535 129 63 41
0.387405 -0.469271 1.535 135 69 45
0.38982 -0.46866 1.533 135 69 45
0.392484 -0.468354 1.532 133 71 41
0.395402 -0.468354 1.532 136 74 44
0.39806 -0.468049 1.531 138 73 42
0.400976 -0.468049 1.531 140 75 44
0.403892 -0.468049 1.531 141 79 49
0.406809 -0.468049 1.531 142 80 50
0.409725 -0.468049 1.531 142 78 44
0.412641 -0.468049 1.531 136 72 38
0.415557 -0.468049 1.531 136 72 38
0.418473 -0.468049 1.531 139 75 41
0.42139 -0.468049 1.531 138 74 40
0.424306 -0.468049 1.531 138 74 40
0.426943 -0.467743 1.53 139 74 43
0.429576 -0.467437 1.529 139 74 43
0.432489 -0.467437 1.529 140 75 46
0.435401 -0.467437 1.529 142 77 48
0.438313 -0.467437 1.529 142 77 46
0.441514 -0.467743 1.53 144 79 48
0.444429 -0.467743 1.53 149 88 51
0.447343 -0.467743 1.53 150 89 52
0.450257 -0.467743 1.53 148 90 49
0.452875 -0.467437 1.529 153 95 54
0.454297 -0.465909 1.524 155 95 53
0.4572 -0.465909 1.524 154 94 52
0.459801 -0.465603 1.523 151 85 47
0.462702 -0.465603 1.523 153 87 49
0.465909 -0.465909 1.524 154 93 56
0.468811 -0.465909 1.524 155 94 57
0.472024 -0.466214 1.525 151 91 51
0.476174 -0.467437 1.529 155 95 55
0.4794 -0.467743 1.53 151 93 52
0.482314 -0.467743 1.53 151 93 52
0.485546 -0.468049 1.531 150 89 52
0.488462 -0.468049 1.531 150 89 52
0.491378 -0.468049 1.531 150 86 50
0.494294 -0.468049 1.531 151 87 51
0.49721 -0.468049 1.531 150 87 48
0.500127 -0.468049 1.531 150 87 48
0.503043 -0.468049 1.531 151 85 45
0.50629 -0.468354 1.532 149 83 43
0.509208 -0.468354 1.532 149 86 47
0.51246 -0.46866 1.533 149 86 47
0.51538 -0.46866 1.533 147 87 47
0.5183 -0.46866 1.533 140 80 40
0.52156 -0.468966 1.534 142 75 42
0.524824 -0.469271 1.535 141 74 41
0.527748 -0.469271 1.535 135 73 41
0.531017 -0.469577 1.536 134 72 40
0.533943 -0.469577 1.536 132 72 41
0.536869 -0.469577 1.536 129 69 38
0.539443 -0.469271 1.535 126 71 38
0.542013 -0.468966 1.534 124 69 36
0.544935 -0.468966 1.534 120 65 32
0.547143 -0.468354 1.532 120 65 32
0.549702 -0.468049 1.531 123 65 42
0.552618 -0.468049 1.531 121 63 40
0.554809 -0.467437 1.529 120 62 39
0.556262 -0.466214 1.525 120 62 39
0.559167 -0.466214 1.525 123 67 39
0.561334 -0.465603 1.523 124 68 40
0.563865 -0.465297 1.522 120 70 38
0.566764 -0.465297 1.522 119 69 37
0.568914 -0.464686 1.52 124 69 38
0.569929 -0.463157 1.515 124 69 38
0.572814 -0.463157 1.515 122 67 34
0.5757 -0.463157 1.515 123 68 35
0.57744 -0.46224 1.512 120 69 40
0.579936 -0.461934 1.511 122 71 42
0.582814 -0.461934 1.511 121 67 41
0.585692 -0.461934 1.511 121 67 41
0.58896 -0.46224 1.512 127 71 43
0.592623 -0.462851 1.514 131 75 47
0.595113 -0.462546 1.513 129 73 45
0.597995 -0.462546 1.513 131 75 47
0.601274 -0.462851 1.514 133 75 48
0.603759 -0.462546 1.513 132 74 47
0.60624 -0.46224 1.512 135 73 45
0.60912 -0.46224 1.512 137 75 47
0.612 -0.46224 1.512 137 77 48
0.61488 -0.46224 1.512 135 75 46
0.61776 -0.46224 1.512 137 77 46
0.619819 -0.461629 1.51 137 77 46
0.622695 -0.461629 1.51 140 80 47
0.625986 -0.461934 1.511 141 81 48
0.628864 -0.461934 1.511 143 81 49
0.631742 -0.461934 1.511 143 81 49
0.63294 -0.460711 1.507 143 81 51
0.63581 -0.460711 1.507 147 85 55
0.638257 -0.460406 1.506 144 87 55
0.6407 -0.4601 1.505 145 88 56
0.643567 -0.4601 1.505 147 87 56
0.646004 -0.459794 1.504 147 87 56
0.648437 -0.459489 1.503 144 89 56
0.6513 -0.459489 1.503 143 88 55
0.653728 -0.459183 1.502 144 89 56
0.656589 -0.459183 1.502 144 89 56
0.65945 -0.459183 1.502 140 85 50
0.66231 -0.459183 1.502 143 88 53
0.666057 -0.459794 1.504 142 89 54
0.669367 -0.4601 1.505 141 88 53
0.672233 -0.4601 1.505 139 86 51
0.675997 -0.460711 1.507 139 86 51
0.679318 -0.461017 1.508 142 92 58
0.68219 -0.461017 1.508 142 92 58
0.685517 -0.461323 1.509 145 90 57
0.688391 -0.461323 1.509 145 90 57
0.692182 -0.461934 1.511 145 90 59
0.69506 -0.461934 1.511 148 93 62
0.6984 -0.46224 1.512 145 92 59
0.70128 -0.46224 1.512 144 91 58
0.702763 -0.461323 1.509 142 92 60
0.703299 -0.459794 1.504 142 92 60
0.706164 -0.459794 1.504 142 91 64
0.709029 -0.459794 1.504 144 93 66
0.354549 -0.465436 1.532 82 43 25
0.357467 -0.465436 1.532 88 47 30
0.36015 -0.465132 1.531 91 50 33
0.363066 -0.465132 1.531 100 52 35
0.365982 -0.465132 1.531 102 54 37
0.368898 -0.465132 1.531 109 53 37
0.372543 -0.466044 1.534 110 54 38
0.376199 -0.466955 1.537 118 56 37
0.379127 -0.466955 1.537 121 59 40
0.381806 -0.466651 1.536 130 64 44
0.384481 -0.466348 1.535 125 59 39
0.387405 -0.466348 1.535 130 65 38
0.38982 -0.46574 1.533 138 73 46
0.392484 -0.465436 1.532 137 78 42
0.395402 -0.465436 1.532 136 77 41
0.39806 -0.465132 1.531 133 69 33
0.400976 -0.465132 1.531 136 72 36
0.403892 -0.465132 1.531 137 76 41
0.406809 -0.465132 1.531 141 80 45
0.409725 -0.465132 1.531 137 78 42
0.412641 -0.465132 1.531 139 80 44
0.415557 -0.465132 1.531 138 77 42
0.418473 -0.465132 1.531 135 74 39
0.42139 -0.465132 1.531 137 76 41
0.424306 -0.465132 1.531 141 80 45
0.426943 -0.464829 1.53 138 73 42
0.429576 -0.464525 1.529 142 77 46
0.432489 -0.464525 1.529 144 79 50
0.435401 -0.464525 1.529 144 79 50
0.438313 -0.464525 1.529 145 80 49
0.441514 -0.464829 1.53 146 81 50
0.444429 -0.464829 1.53 148 87 50
0.447343 -0.464829 1.53 148 87 50
0.450257 -0.464829 1.53 150 90 50
0.452875 -0.464525 1.529 156 96 56
0.454297 -0.463006 1.524 154 94 54
0.4572 -0.463006 1.524 152 92 52
0.459801 -0.462702 1.523 152 91 54
0.462702 -0.462702 1.523 150 89 52
0.465909 -0.463006 1.524 150 89 52
0.468811 -0.463006 1.524 152 91 54
0.472024 -0.46331 1.525 151 93 52
0.476174 -0.464525 1.529 149 91 50
0.4794 -0.464829 1.53 149 94 52
0.482314 -0.464829 1.53 151 96 54
0.485546 -0.465132 1.531 148 87 50
0.488462 -0.465132 1.531 150 89 52
0.491378 -0.465132 1.531 149 88 51
0.494294 -0.465132 1.531 149 88 51
0.49721 -0.465132 1.531 152 89 50
0.500127 -0.465132 1.531 150 87 48
0.503043 -0.465132 1.531 149 86 45
0.50629 -0.465436 1.532 149 86 45
0.509208 -0.465436 1.532 149 89 49
0.51246 -0.46574 1.533 148 88 48
0.51538 -0.46574 1.533 144 85 47
0.5183 -0.46574 1.533 137 78 40
0.52156 -0.466044 1.534 140 80 47
0.524824 -0.466348 1.535 140 80 47
0.527748 -0.466348 1.535 137 72 41
0.531017 -0.466651 1.536 132 67 36
0.533943 -0.466651 1.536 128 68 37
0.536869 -0.466651 1.536 128 68 37
0.539443 -0.466348 1.535 126 69 39
0.542013 -0.466044 1.534 127 70 40
0.544935 -0.466044 1.534 121 63 36
0.547143 -0.465436 1.532 117 59 32
0.549702 -0.465132 1.531 125 64 40
0.552618 -0.465132 1.531 126 65 41
0.554809 -0.464525 1.529 121 60 34
0.556262 -0.46331 1.525 123 62 36
0.559167 -0.46331 1.525 126 70 42
0.561334 -0.462702 1.523 125 69 41
0.563865 -0.462398 1.522 121 70 43
0.566764 -0.462398 1.522 121 70 43
0.568914 -0.46179 1.52 124 68 40
0.569929 -0.460271 1.515 122 66 38
0.572814 -0.460271 1.515 122 67 34
0.57456 -0.45936 1.512 124 69 36
0.577058 -0.459056 1.511 119 69 37
0.579552 -0.458752 1.51 122 72 40
0.582429 -0.458752 1.51 121 70 41
0.585305 -0.458752 1.51 118 67 38
0.588181 -0.458752 1.51 125 69 41
0.591057 -0.458752 1.51 129 73 45
0.593933 -0.458752 1.51 127 73 45
0.597995 -0.459664 1.513 130 76 48
0.601274 -0.459968 1.514 131 74 44
0.603759 -0.459664 1.513 130 73 43
0.60624 -0.45936 1.512 133 71 41
0.60912 -0.45936 1.512 138 76 46
0.610381 -0.458145 1.508 134 77 47
0.613253 -0.458145 1.508 134 77 47
0.616126 -0.458145 1.508 135 78 46
0.618998 -0.458145 1.508 135 78 46
0.622695 -0.458752 1.51 137 77 44
0.625986 -0.459056 1.511 140 80 47
0.628864 -0.459056 1.511 141 82 46
0.631742 -0.459056 1.511 143 84 48
0.63294 -0.457841 1.507 146 86 53
0.63581 -0.457841 1.507 147 87 54
0.637833 -0.457233 1.505 145 83 51
0.639849 -0.456626 1.503 145 83 51
0.642711 -0.456626 1.503 149 84 55
0.645145 -0.456322 1.502 145 80 51
0.648006 -0.456322 1.502 141 84 50
0.650867 -0.456322 1.502 142 85 51
0.651551 -0.454803 1.497 146 89 57
0.654403 -0.454803 1.497 146 89 57
0.657254 -0.454803 1.497 143 88 55
0.660106 -0.454803 1.497 145 90 57
0.665171 -0.456322 1.502 143 91 53
0.668922 -0.45693 1.504 142 90 52
0.671787 -0.45693 1.504 145 90 55
0.675997 -0.457841 1.507 143 88 53
0.679318 -0.458145 1.508 139 86 51
0.68219 -0.458145 1.508 143 90 55
0.685517 -0.458449 1.509 141 91 55
0.688391 -0.458449 1.509 139 89 53
0.69264 -0.45936 1.512 145 90 57
0.69552 -0.45936 1.512 150 95 62
0.698862 -0.459664 1.513 145 92 61
0.701744 -0.459664 1.513 144 91 60
0.702763 -0.458449 1.509 145 91 63
0.703299 -0.45693 1.504 142 88 60
0.706164 -0.45693 1.504 143 93 61
0.709029 -0.45693 1.504 146 96 64
0.353467 -0.464933 1.54 85 41 23
0.354549 -0.462518 1.532 91 47 29
0.357467 -0.462518 1.532 85 46 24
0.36015 -0.462216 1.531 85 46 24
0.362117 -0.461009 1.527 102 57 34
0.365026 -0.461009 1.527 102 57 34
0.367934 -0.461009 1.527 115 58 39
0.370843 -0.461009 1.527 115 58 39
0.37473 -0.462216 1.531 120 59 37
0.377893 -0.462518 1.532 122 61 39
0.380811 -0.462518 1.532 129 68 46
0.382978 -0.461612 1.529 122 61 39
0.38589 -0.461612 1.529 125 65 34
0.388549 -0.46131 1.528 132 72 41
0.391459 -0.46131 1.528 133 72 35
0.39437 -0.46131 1.528 133 72 35
0.39728 -0.46131 1.528 133 72 35
0.40019 -0.46131 1.528 136 75 38
0.403101 -0.46131 1.528 137 76 39
0.406011 -0.46131 1.528 135 74 37
0.408922 -0.46131 1.528 137 77 44
0.411832 -0.46131 1.528 139 79 46
0.414743 -0.46131 1.528 137 76 41
0.417653 -0.46131 1.528 135 74 39
0.420564 -0.46131 1.528 142 80 48
0.423474 -0.46131 1.528 142 80 48
0.426385 -0.46131 1.528 141 74 41
0.429014 -0.461009 1.527 144 77 44
0.431923 -0.461009 1.527 143 75 42
0.434831 -0.461009 1.527 146 78 45
0.43774 -0.461009 1.527 149 85 49
0.441226 -0.461612 1.529 150 86 50
0.444138 -0.461612 1.529 149 85 49
0.447343 -0.461914 1.53 153 89 53
0.450257 -0.461914 1.53 158 91 56
0.452875 -0.461612 1.529 160 93 58
0.454297 -0.460103 1.524 154 94 52
0.4572 -0.460103 1.524 150 90 48
0.459801 -0.459801 1.523 151 93 48
0.462702 -0.459801 1.523 150 92 47
0.465909 -0.460103 1.524 149 90 43
0.468811 -0.460103 1.524 152 93 46
0.472024 -0.460405 1.525 150 92 51
0.475863 -0.46131 1.528 150 92 51
0.4794 -0.461914 1.53 154 94 54
0.482314 -0.461914 1.53 155 95 55
0.485546 -0.462216 1.531 152 91 54
0.488462 -0.462216 1.531 151 90 53
0.491378 -0.462216 1.531 151 91 51
0.494294 -0.462216 1.531 150 90 50
0.49721 -0.462216 1.531 150 90 50
0.500127 -0.462216 1.531 149 89 49
0.503043 -0.462216 1.531 150 87 46
0.505959 -0.462216 1.531 151 88 47
0.508875 -0.462216 1.531 147 87 43
0.512126 -0.462518 1.532 145 85 41
0.51538 -0.46282 1.533 141 85 46
0.5183 -0.46282 1.533 141 85 46
0.52156 -0.463122 1.534 139 82 48
0.524482 -0.463122 1.534 134 77 43
0.527404 -0.463122 1.534 135 73 45
0.531017 -0.463726 1.536 131 69 41
0.533943 -0.463726 1.536 129 69 40
0.536869 -0.463726 1.536 129 69 40
0.539443 -0.463424 1.535 128 67 43
0.542013 -0.463122 1.534 127 66 42
0.544935 -0.463122 1.534 123 62 38
0.547143 -0.462518 1.532 123 62 38
0.549343 -0.461914 1.53 123 65 40
0.552257 -0.461914 1.53 125 67 42
0.55372 -0.460707 1.526 123 63 34
0.555897 -0.460103 1.524 123 63 34
0.5588 -0.460103 1.524 123 66 36
0.560966 -0.459499 1.522 124 67 37
0.563124 -0.458895 1.52 118 64 38
0.566019 -0.458895 1.52 116 62 36
0.568166 -0.458291 1.518 122 66 40
0.569929 -0.457386 1.515 122 66 40
0.572814 -0.457386 1.515 120 67 36
0.57456 -0.45648 1.512 121 68 37
0.576676 -0.455876 1.51 118 68 36
0.579169 -0.455574 1.509 121 71 39
0.582043 -0.455574 1.509 121 70 41
0.584917 -0.455574 1.509 120 69 40
0.587791 -0.455574 1.509 123 70 39
0.590666 -0.455574 1.509 125 72 41
0.59354 -0.455574 1.509 127 74 43
0.59681 -0.455876 1.51 128 75 44
0.60048 -0.45648 1.512 128 74 46
0.60336 -0.45648 1.512 127 73 45
0.604636 -0.455272 1.508 134 74 45
0.607509 -0.455272 1.508 137 77 48
0.609571 -0.454669 1.506 133 78 45
0.61244 -0.454669 1.506 130 75 42
0.615309 -0.454669 1.506 130 77 44
0.618177 -0.454669 1.506 135 82 49
0.621458 -0.45497 1.507 134 74 45
0.624743 -0.455272 1.508 136 76 47
0.627615 -0.455272 1.508 143 81 53
0.629651 -0.454669 1.506 144 82 54
0.63168 -0.454065 1.504 144 82 50
0.634545 -0.454065 1.504 145 83 51
0.636986 -0.453763 1.503 144 80 44
0.639849 -0.453763 1.503 145 81 45
0.642711 -0.453763 1.503 146 82 48
0.645145 -0.453461 1.502 146 82 48
0.645417 -0.45165 1.496 140 83 49
0.648267 -0.45165 1.496 144 87 53
0.650681 -0.451348 1.495 144 89 54
0.653529 -0.451348 1.495 143 88 53
0.656815 -0.45165 1.496 145 90 55
0.659665 -0.45165 1.496 145 90 55
0.662957 -0.451951 1.497 143 88 53
0.668032 -0.453461 1.502 144 89 54
0.670893 -0.453461 1.502 143 90 59
0.675549 -0.454669 1.506 143 90 59
0.678868 -0.45497 1.507 140 90 56
0.681738 -0.45497 1.507 140 90 56
0.684609 -0.45497 1.507 142 93 54
0.687935 -0.455272 1.508 143 94 55
0.692182 -0.456178 1.511 142 92 58
0.69506 -0.456178 1.511 142 92 58
0.698862 -0.456782 1.513 143 89 61
0.701744 -0.456782 1.513 141 87 59
0.702763 -0.455574 1.509 146 92 64
0.703299 -0.454065 1.504 144 90 62
0.706164 -0.454065 1.504 143 93 59
0.709029 -0.454065 1.504 144 94 60
0.347826 -0.4623 1.541 81 43 32
0.350761 -0.4623 1.541 78 40 29
0.35209 -0.4602 1.534 84 42 28
0.354549 -0.4596 1.532 89 47 33
0.357467 -0.4596 1.532 89 49 25
0.36015 -0.4593 1.531 92 52 28
0.362117 -0.4581 1.527 104 54 31
0.365026 -0.4581 1.527 103 53 30
0.367934 -0.4581 1.527 112 53 33
0.370114 -0.4572 1.524 120 61 41
0.372772 -0.4569 1.523 122 61 37
0.375673 -0.4569 1.523 125 64 40
0.378574 -0.4569 1.523 129 66 43
0.382978 -0.4587 1.529 131 68 45
0.38589 -0.4587 1.529 131 69 41
0.388549 -0.4584 1.528 133 71 43
0.390434 -0.4572 1.524 135 71 35
0.393337 -0.4572 1.524 133 69 33
0.39624 -0.4572 1.524 137 70 35
0.399405 -0.4575 1.525 137 70 35
0.40231 -0.4575 1.525 137 71 33
0.405214 -0.4575 1.525 138 72 34
0.408119 -0.4575 1.525 140 83 49
0.411024 -0.4575 1.525 137 80 46
0.413929 -0.4575 1.525 139 75 41
0.417107 -0.4578 1.526 140 76 42
0.420289 -0.4581 1.527 143 75 42
0.423197 -0.4581 1.527 145 77 44
0.425827 -0.4578 1.526 143 72 40
0.428452 -0.4575 1.525 145 74 42
0.431357 -0.4575 1.525 145 77 44
0.434262 -0.4575 1.525 146 78 45
0.437167 -0.4575 1.525 146 81 50
0.440649 -0.4581 1.527 150 85 54
0.443557 -0.4581 1.527 149 81 53
0.44705 -0.4587 1.529 155 87 59
0.449963 -0.4587 1.529 159 92 57
0.452875 -0.4587 1.529 160 93 58
0.454893 -0.4578 1.526 158 95 52
0.4578 -0.4578 1.526 156 93 50
0.460103 -0.4572 1.524 150 90 46
0.463006 -0.4572 1.524 152 92 48
0.465909 -0.4572 1.524 152 89 48
0.468811 -0.4572 1.524 154 91 50
0.472024 -0.4575 1.525 151 91 51
0.475551 -0.4581 1.527 151 91 51
0.479087 -0.4587 1.529 156 93 54
0.481999 -0.4587 1.529 153 90 51
0.485229 -0.459 1.53 153 90 51
0.488462 -0.4593 1.531 154 91 52
0.491378 -0.4593 1.531 152 89 48
0.494294 -0.4593 1.531 150 87 46
0.49721 -0.4593 1.531 150 87 46
0.500127 -0.4593 1.531 152 89 48
0.503043 -0.4593 1.531 149 89 47
0.505959 -0.4593 1.531 148 88 46
0.508875 -0.4593 1.531 145 82 41
0.511791 -0.4593 1.531 144 81 40
0.515044 -0.4596 1.532 141 80 43
0.517962 -0.4596 1.532 141 80 43
0.52122 -0.4599 1.533 138 76 44
0.524482 -0.4602 1.534 134 72 40
0.527404 -0.4602 1.534 134 74 45
0.530671 -0.4605 1.535 132 72 43
0.533943 -0.4608 1.536 128 71 41
0.536869 -0.4608 1.536 130 73 43
0.539443 -0.4605 1.535 127 69 44
0.54166 -0.4599 1.533 125 67 42
0.54458 -0.4599 1.533 126 65 43
0.546786 -0.4593 1.531 125 64 42
0.548625 -0.4584 1.528 120 62 35
0.551535 -0.4584 1.528 121 63 36
0.553357 -0.4575 1.525 121 64 34
0.555897 -0.4572 1.524 119 62 32
0.5588 -0.4572 1.524 121 64 34
0.560229 -0.456 1.52 121 64 34
0.562383 -0.4554 1.518 123 65 42
0.565274 -0.4554 1.518 121 63 40
0.567791 -0.4551 1.517 119 62 41
0.569929 -0.4545 1.515 122 65 44
0.572814 -0.4545 1.515 117 68 38
0.57456 -0.4536 1.512 119 70 40
0.576676 -0.453 1.51 119 68 39
0.579169 -0.4527 1.509 116 65 36
0.582043 -0.4527 1.509 121 67 41
0.58453 -0.4524 1.508 123 69 43
0.587402 -0.4524 1.508 122 72 40
0.590274 -0.4524 1.508 122 72 40
0.593147 -0.4524 1.508 123 73 41
0.596414 -0.4527 1.509 123 73 41
0.600083 -0.4533 1.511 130 74 48
0.602961 -0.4533 1.511 130 74 48
0.603433 -0.4515 1.505 133 72 48
0.6063 -0.4515 1.505 133 72 48
0.609167 -0.4515 1.505 129 76 43
0.611627 -0.4512 1.504 130 77 44
0.614491 -0.4512 1.504 129 76 45
0.617356 -0.4512 1.504 131 78 47
0.620633 -0.4515 1.505 137 76 50
0.623914 -0.4518 1.506 141 80 54
0.626783 -0.4518 1.506 144 81 56
0.628815 -0.4512 1.504 143 80 55
0.63126 -0.4509 1.503 140 80 49
0.634123 -0.4509 1.503 143 83 52
0.636986 -0.4509 1.503 144 80 44
0.639849 -0.4509 1.503 146 82 46
0.642711 -0.4509 1.503 147 83 47
0.645145 -0.4506 1.502 147 83 47
0.645417 -0.4488 1.496 144 84 53
0.648267 -0.4488 1.496 146 86 55
0.650681 -0.4485 1.495 141 86 51
0.653529 -0.4485 1.495 146 91 56
0.656815 -0.4488 1.496 143 90 55
0.659665 -0.4488 1.496 141 88 53
0.662957 -0.4491 1.497 141 88 55
0.666698 -0.4497 1.499 141 88 55
0.669553 -0.4497 1.499 141 90 61
0.674203 -0.4509 1.503 142 91 62
0.678417 -0.4518 1.506 142 94 59
0.681286 -0.4518 1.506 138 90 55
0.684154 -0.4518 1.506 143 88 53
0.687479 -0.4521 1.507 147 92 57
0.69035 -0.4521 1.507 144 91 60
0.69368 -0.4524 1.508 142 89 58
0.6984 -0.4536 1.512 145 89 61
0.70128 -0.4536 1.512 147 91 63
0.702763 -0.4527 1.509 146 92 64
0.704234 -0.4518 1.506 145 91 63
0.707103 -0.4518 1.506 143 93 59
0.709971 -0.4518 1.506 142 92 58
0.347826 -0.459365 1.541 84 41 32
0.350761 -0.459365 1.541 83 40 31
0.35209 -0.457278 1.534 88 47 30
0.354549 -0.456682 1.532 92 51 34
0.357467 -0.456682 1.532 96 52 24
0.358503 -0.454297 1.524 99 55 27
0.361169 -0.453999 1.523 109 53 29
0.36407 -0.453999 1.523 110 54 30
0.36697 -0.453999 1.523 118 54 36
0.369871 -0.453999 1.523 124 60 42
0.372772 -0.453999 1.523 127 64 43
0.375673 -0.453999 1.523 126 63 42
0.378077 -0.453403 1.521 128 59 36
0.380473 -0.452807 1.519 133 64 41
0.383367 -0.452807 1.519 134 66 38
0.38626 -0.452807 1.519 139 71 43
0.389153 -0.452807 1.519 138 77 42
0.393337 -0.454297 1.524 135 74 39
0.39624 -0.454297 1.524 138 71 38
0.399405 -0.454595 1.525 138 71 38
0.40231 -0.454595 1.525 138 71 36
0.405214 -0.454595 1.525 142 75 40
0.408119 -0.454595 1.525 141 80 45
0.411024 -0.454595 1.525 138 77 42
0.413929 -0.454595 1.525 141 73 40
0.417107 -0.454893 1.526 146 78 45
0.420289 -0.455191 1.527 147 76 44
0.423197 -0.455191 1.527 147 76 44
0.425827 -0.454893 1.526 145 74 42
0.428452 -0.454595 1.525 147 76 44
0.431357 -0.454595 1.525 146 78 45
0.434262 -0.454595 1.525 145 77 44
0.437167 -0.454595 1.525 144 79 50
0.440649 -0.455191 1.527 149 84 55
0.443557 -0.455191 1.527 148 86 56
0.44705 -0.455788 1.529 149 87 57
0.449963 -0.455788 1.529 159 93 55
0.452875 -0.455788 1.529 158 92 54
0.455191 -0.455191 1.527 160 94 52
0.4581 -0.455191 1.527 162 96 54
0.460405 -0.454595 1.525 158 92 52
0.46331 -0.454595 1.525 155 89 49
0.466214 -0.454595 1.525 156 90 52
0.469119 -0.454595 1.525 155 89 51
0.472024 -0.454595 1.525 158 92 54
0.475551 -0.455191 1.527 158 92 54
0.479087 -0.455788 1.529 156 90 52
0.481999 -0.455788 1.529 153 87 49
0.485229 -0.456086 1.53 151 88 49
0.488462 -0.456384 1.531 154 91 52
0.491378 -0.456384 1.531 152 89 50
0.494294 -0.456384 1.531 149 86 47
0.49721 -0.456384 1.531 150 87 48
0.500127 -0.456384 1.531 150 87 48
0.503043 -0.456384 1.531 149 89 47
0.505959 -0.456384 1.531 150 90 48
0.508875 -0.456384 1.531 147 83 47
0.511791 -0.456384 1.531 144 80 44
0.515044 -0.456682 1.532 145 81 47
0.517962 -0.456682 1.532 144 80 46
0.52122 -0.45698 1.533 137 76 41
0.524482 -0.457278 1.534 136 75 40
0.527404 -0.457278 1.534 132 75 41
0.530671 -0.457576 1.535 130 73 39
0.53429 -0.458172 1.537 128 71 41
0.537218 -0.458172 1.537 126 69 39
0.539443 -0.457576 1.535 124 69 38
0.54166 -0.45698 1.533 123 68 37
0.54458 -0.45698 1.533 126 65 41
0.546786 -0.456384 1.531 122 61 37
0.548625 -0.45549 1.528 119 61 36
0.551535 -0.45549 1.528 124 66 41
0.553357 -0.454595 1.525 118 64 36
0.555897 -0.454297 1.524 113 59 31
0.5588 -0.454297 1.524 119 63 35
0.560229 -0.453105 1.52 122 66 38
0.562383 -0.452509 1.518 118 62 36
0.565274 -0.452509 1.518 119 63 37
0.567791 -0.45221 1.517 118 61 40
0.569929 -0.451614 1.515 120 63 42
0.572814 -0.451614 1.515 118 64 38
0.57532 -0.451316 1.514 120 66 40
0.577058 -0.450422 1.511 118 64 38
0.579169 -0.449826 1.509 121 67 41
0.582043 -0.449826 1.509 121 67 43
0.58453 -0.449528 1.508 121 67 43
0.587402 -0.449528 1.508 120 71 41
0.590274 -0.449528 1.508 119 70 40
0.593147 -0.449528 1.508 123 78 44
0.596414 -0.449826 1.509 119 74 40
0.600083 -0.450422 1.511 127 73 47
0.602961 -0.450422 1.511 127 73 47
0.603433 -0.448633 1.505 130 69 47
0.6063 -0.448633 1.505 130 69 47
0.609167 -0.448633 1.505 131 73 46
0.611627 -0.448335 1.504 130 72 45
0.614491 -0.448335 1.504 135 74 48
0.617356 -0.448335 1.504 137 76 50
0.620633 -0.448633 1.505 140 80 51
0.623914 -0.448931 1.506 141 81 52
0.626783 -0.448931 1.506 138 81 51
0.628815 -0.448335 1.504 138 81 51
0.63126 -0.448037 1.503 137 82 51
0.634123 -0.448037 1.503 137 82 51
0.636986 -0.448037 1.503 141 81 48
0.639849 -0.448037 1.503 142 82 49
0.642711 -0.448037 1.503 144 82 50
0.645145 -0.447739 1.502 144 82 50
0.644554 -0.445354 1.494 142 80 50
0.6474 -0.445354 1.494 144 82 52
0.650246 -0.445354 1.494 145 88 54
0.653091 -0.445354 1.494 146 89 55
0.655937 -0.445354 1.494 143 88 55
0.658783 -0.445354 1.494 145 90 57
0.662514 -0.44595 1.496 143 90 57
0.666698 -0.446845 1.499 142 89 56
0.669553 -0.446845 1.499 140 90 58
0.674203 -0.448037 1.503 140 90 58
0.678417 -0.448931 1.506 143 95 62
0.681286 -0.448931 1.506 141 93 60
0.684154 -0.448931 1.506 147 92 59
0.687479 -0.44923 1.507 150 95 62
0.69035 -0.44923 1.507 147 90 60
0.69368 -0.449528 1.508 144 87 57
0.6984 -0.45072 1.512 147 90 58
0.70128 -0.45072 1.512 147 90 58
0.702763 -0.449826 1.509 146 91 58
0.704234 -0.448931 1.506 147 92 59
0.707103 -0.448931 1.506 148 95 62
0.709971 -0.448931 1.506 146 93 60
0.347826 -0.45643 1.541 82 41 24
0.350761 -0.45643 1.541 86 45 28
0.35163 -0.453764 1.532 94 48 32
0.352697 -0.451394 1.524 97 51 35
0.3556 -0.451394 1.524 99 47 27
0.358032 -0.450802 1.522 100 48 28
0.360931 -0.450802 1.522 109 51 28
0.36383 -0.450802 1.522 113 55 32
0.36673 -0.450802 1.522 121 57 39
0.369629 -0.450802 1.522 123 59 41
0.372528 -0.450802 1.522 124 61 40
0.375427 -0.450802 1.522 127 64 43
0.377331 -0.449617 1.518 128 63 36
0.379972 -0.449321 1.517 132 67 40
0.382862 -0.449321 1.517 132 67 36
0.385751 -0.449321 1.517 135 70 39
0.388641 -0.449321 1.517 138 77 42
0.392047 -0.449913 1.519 134 73 38
0.39494 -0.449913 1.519 139 70 40
0.399143 -0.451394 1.524 142 73 43
0.402046 -0.451394 1.524 140 73 38
0.404949 -0.451394 1.524 142 75 40
0.407851 -0.451394 1.524 147 79 46
0.411024 -0.45169 1.525 145 77 44
0.413929 -0.45169 1.525 146 77 47
0.416833 -0.45169 1.525 148 79 49
0.420013 -0.451987 1.526 148 79 49
0.42292 -0.451987 1.526 145 76 46
0.425548 -0.45169 1.525 146 79 46
0.428171 -0.451394 1.524 146 79 46
0.431074 -0.451394 1.524 138 77 40
0.433977 -0.451394 1.524 140 79 42
0.437167 -0.45169 1.525 144 83 48
0.440071 -0.45169 1.525 147 86 51
0.442976 -0.45169 1.525 151 89 57
0.446466 -0.452283 1.527 151 89 57
0.449669 -0.452579 1.528 153 89 53
0.452579 -0.452579 1.528 154 90 54
0.455191 -0.452283 1.527 156 90 52
0.4581 -0.452283 1.527 161 95 57
0.460405 -0.45169 1.525 160 93 55
0.46331 -0.45169 1.525 157 90 52
0.466214 -0.45169 1.525 159 92 52
0.469119 -0.45169 1.525 156 89 49
0.472024 -0.45169 1.525 159 92 52
0.475551 -0.452283 1.527 160 93 53
0.479087 -0.452875 1.529 159 91 58
0.481999 -0.452875 1.529 156 88 55
0.485229 -0.453171 1.53 155 87 54
0.488462 -0.453468 1.531 155 87 54
0.491378 -0.453468 1.531 153 89 55
0.494294 -0.453468 1.531 152 88 54
0.49721 -0.453468 1.531 151 88 49
0.500127 -0.453468 1.531 147 84 45
0.503043 -0.453468 1.531 148 88 46
0.505959 -0.453468 1.531 148 88 46
0.508875 -0.453468 1.531 147 86 49
0.511791 -0.453468 1.531 143 82 45
0.514708 -0.453468 1.531 144 80 44
0.517624 -0.453468 1.531 144 80 44
0.52054 -0.453468 1.531 139 79 46
0.52414 -0.45406 1.533 139 79 46
0.52706 -0.45406 1.533 133 76 42
0.530326 -0.454356 1.534 131 74 40
0.53429 -0.455245 1.537 127 67 36
0.537218 -0.455245 1.537 128 68 37
0.539091 -0.454356 1.534 126 69 37
0.540953 -0.453468 1.531 124 67 35
0.54387 -0.453468 1.531 123 62 36
0.546071 -0.452875 1.529 121 60 34
0.547907 -0.451987 1.526 121 63 38
0.550813 -0.451987 1.526 121 63 38
0.552994 -0.451394 1.524 118 62 34
0.555897 -0.451394 1.524 116 60 32
0.5588 -0.451394 1.524 122 66 38
0.55986 -0.449913 1.519 120 64 36
0.562383 -0.449617 1.518 113 63 31
0.565274 -0.449617 1.518 114 64 32
0.567791 -0.449321 1.517 117 63 37
0.569929 -0.448729 1.515 118 64 38
0.572814 -0.448729 1.515 118 67 38
0.57532 -0.448432 1.514 118 67 38
0.577058 -0.447544 1.511 119 68 41
0.579169 -0.446951 1.509 120 69 42
0.582043 -0.446951 1.509 115 66 40
0.58453 -0.446655 1.508 114 65 39
0.587402 -0.446655 1.508 118 69 41
0.590274 -0.446655 1.508 117 68 40
0.593147 -0.446655 1.508 122 74 41
0.596414 -0.446951 1.509 120 72 39
0.599686 -0.447248 1.51 122 72 40
0.602562 -0.447248 1.51 122 72 40
0.603433 -0.445767 1.505 125 69 41
0.6063 -0.445767 1.505 127 71 43
0.608357 -0.445174 1.503 133 73 44
0.61122 -0.445174 1.503 129 69 40
0.614083 -0.445174 1.503 134 72 44
0.616946 -0.445174 1.503 136 74 46
0.619809 -0.445174 1.503 134 77 45
0.623086 -0.44547 1.504 141 84 52
0.625534 -0.445174 1.503 138 83 52
0.627979 -0.444878 1.502 136 81 50
0.63084 -0.444878 1.502 138 83 52
0.633701 -0.444878 1.502 136 81 50
0.636562 -0.444878 1.502 140 80 49
0.639423 -0.444878 1.502 142 82 51
0.642711 -0.445174 1.503 143 78 49
0.645145 -0.444878 1.502 146 81 52
0.644554 -0.442509 1.494 147 85 57
0.6474 -0.442509 1.494 148 86 58
0.650246 -0.442509 1.494 147 87 56
0.653091 -0.442509 1.494 144 84 53
0.655937 -0.442509 1.494 146 89 57
0.658783 -0.442509 1.494 147 90 58
0.662071 -0.442805 1.495 146 91 58
0.665364 -0.443101 1.496 147 92 59
0.668213 -0.443101 1.496 142 92 60
0.672409 -0.44399 1.499 142 92 60
0.677066 -0.445174 1.503 146 93 60
0.679929 -0.445174 1.503 148 95 62
0.6837 -0.445767 1.505 151 96 63
0.687023 -0.446063 1.506 152 97 64
0.689891 -0.446063 1.506 147 92 59
0.69322 -0.446359 1.507 146 91 58
0.697014 -0.446951 1.509 147 92 57
0.700816 -0.447544 1.511 145 90 55
0.702763 -0.446951 1.509 147 87 54
0.704234 -0.446063 1.506 148 88 55
0.707103 -0.446063 1.506 149 92 60
0.709029 -0.44547 1.504 149 92 60
0.711893 -0.44547 1.504 146 93 60
0.3366 -0.450257 1.53 69 40 28
0.339514 -0.450257 1.53 76 42 30
0.342429 -0.450257 1.53 76 42 30
0.345343 -0.450257 1.53 78 38 23
0.348257 -0.450257 1.53 81 41 26
0.350942 -0.449963 1.529 96 43 28
0.352697 -0.448491 1.524 98 45 30
0.3556 -0.448491 1.524 102 44 28
0.358032 -0.447903 1.522 105 47 31
0.360931 -0.447903 1.522 108 52 28
0.36383 -0.447903 1.522 116 60 36
0.36673 -0.447903 1.522 123 62 38
0.369629 -0.447903 1.522 122 61 37
0.371793 -0.44702 1.519 124 61 38
0.374687 -0.44702 1.519 126 63 40
0.377083 -0.446431 1.517 129 67 39
0.379722 -0.446137 1.516 131 69 41
0.38261 -0.446137 1.516 134 66 36
0.385497 -0.446137 1.516 134 66 36
0.388385 -0.446137 1.516 141 74 41
0.391272 -0.446137 1.516 142 75 42
0.39416 -0.446137 1.516 143 74 44
0.398881 -0.448197 1.523 140 71 41
0.402046 -0.448491 1.524 144 72 43
0.404949 -0.448491 1.524 143 71 42
0.407851 -0.448491 1.524 149 76 45
0.410754 -0.448491 1.524 150 77 46
0.413657 -0.448491 1.524 148 80 47
0.416833 -0.448786 1.525 152 84 51
0.419738 -0.448786 1.525 148 80 47
0.422643 -0.448786 1.525 148 80 47
0.425269 -0.448491 1.524 146 82 48
0.428171 -0.448491 1.524 146 82 48
0.431074 -0.448491 1.524 141 80 43
0.433977 -0.448491 1.524 143 82 45
0.43688 -0.448491 1.524 144 85 47
0.440071 -0.448786 1.525 147 88 50
0.442976 -0.448786 1.525 155 87 57
0.446173 -0.44908 1.526 155 87 57
0.449374 -0.449374 1.527 158 90 60
0.452283 -0.449374 1.527 158 90 60
0.454893 -0.44908 1.526 155 89 51
0.4578 -0.44908 1.526 160 94 56
0.460707 -0.44908 1.526 162 95 57
0.46331 -0.448786 1.525 157 90 52
0.466214 -0.448786 1.525 159 93 55
0.469119 -0.448786 1.525 158 92 54
0.472333 -0.44908 1.526 157 90 48
0.475551 -0.449374 1.527 157 90 48
0.479087 -0.449963 1.529 157 90 52
0.481999 -0.449963 1.529 157 90 52
0.485229 -0.450257 1.53 158 91 58
0.488143 -0.450257 1.53 156 89 56
0.491057 -0.450257 1.53 153 89 53
0.494294 -0.450551 1.531 153 89 53
0.49721 -0.450551 1.531 152 89 50
0.500127 -0.450551 1.531 151 88 49
0.503043 -0.450551 1.531 148 88 46
0.505959 -0.450551 1.531 147 87 45
0.508875 -0.450551 1.531 146 87 49
0.511791 -0.450551 1.531 143 84 46
0.514708 -0.450551 1.531 141 82 44
0.517286 -0.450257 1.53 141 82 44
0.5202 -0.450257 1.53 137 80 46
0.523456 -0.450551 1.531 134 77 43
0.526372 -0.450551 1.531 132 75 41
0.530326 -0.451434 1.534 131 74 40
0.53429 -0.452317 1.537 129 74 41
0.537218 -0.452317 1.537 127 72 39
0.53874 -0.45114 1.533 123 70 39
0.540953 -0.450551 1.531 123 70 39
0.54387 -0.450551 1.531 124 68 42
0.545357 -0.449374 1.527 122 66 40
0.547907 -0.44908 1.526 123 62 40
0.550813 -0.44908 1.526 125 64 42
0.552994 -0.448491 1.524 123 63 34
0.555897 -0.448491 1.524 125 65 36
0.5588 -0.448491 1.524 124 67 37
0.55986 -0.44702 1.519 121 64 34
0.562383 -0.446726 1.518 122 66 38
0.565274 -0.446726 1.518 118 62 34
0.567791 -0.446431 1.517 115 61 33
0.569929 -0.445843 1.515 117 63 35
0.572814 -0.445843 1.515 116 65 38
0.57532 -0.445549 1.514 115 64 37
0.577822 -0.445254 1.513 117 68 42
0.579552 -0.444371 1.51 119 70 44
0.582429 -0.444371 1.51 112 66 37
0.584917 -0.444077 1.509 115 69 40
0.587791 -0.444077 1.509 118 69 43
0.590666 -0.444077 1.509 117 68 42
0.59354 -0.444077 1.509 123 69 43
0.596414 -0.444077 1.509 123 69 43
0.599289 -0.444077 1.509 124 71 40
0.601764 -0.443783 1.508 125 72 41
0.603032 -0.442606 1.504 123 70 39
0.605897 -0.442606 1.504 124 71 40
0.608357 -0.442311 1.503 125 68 38
0.610813 -0.442017 1.502 127 70 40
0.613674 -0.442017 1.502 134 74 43
0.616535 -0.442017 1.502 133 73 42
0.619396 -0.442017 1.502 136 77 41
0.622257 -0.442017 1.502 137 78 42
0.625118 -0.442017 1.502 137 77 46
0.627561 -0.441723 1.501 137 77 46
0.63042 -0.441723 1.501 139 79 50
0.633279 -0.441723 1.501 139 79 50
0.636138 -0.441723 1.501 135 73 41
0.639423 -0.442017 1.502 140 78 46
0.642711 -0.442311 1.503 147 79 51
0.645574 -0.442311 1.503 147 79 51
0.644986 -0.439957 1.495 144 82 52
0.647833 -0.439957 1.495 150 88 58
0.650246 -0.439663 1.494 145 88 54
0.653091 -0.439663 1.494 145 88 54
0.656376 -0.439957 1.495 147 90 56
0.659224 -0.439957 1.495 146 89 55
0.662071 -0.439957 1.495 145 88 54
0.664919 -0.439957 1.495 148 91 57
0.667767 -0.439957 1.495 149 96 63
0.670614 -0.439957 1.495 146 93 60
0.674813 -0.44084 1.498 149 92 60
0.677667 -0.44084 1.498 148 91 59
0.682337 -0.442017 1.502 152 95 63
0.68611 -0.442606 1.504 153 96 64
0.688975 -0.442606 1.504 149 92 58
0.6923 -0.4429 1.505 151 94 60
0.696552 -0.443783 1.508 150 95 60
0.700352 -0.444371 1.51 150 95 60
0.703229 -0.444371 1.51 148 93 58
0.704234 -0.443194 1.506 147 92 57
0.707103 -0.443194 1.506 147 90 56
0.709029 -0.442606 1.504 148 91 57
0.711893 -0.442606 1.504 148 93 58
0.714758 -0.442606 1.504 150 95 60
0.717623 -0.442606 1.504 150 97 64
0.722883 -0.444077 1.509 149 96 63
0.3366 -0.447343 1.53 75 41 31
0.339514 -0.447343 1.53 79 41 32
0.342429 -0.447343 1.53 81 43 34
0.345343 -0.447343 1.53 82 42 29
0.348257 -0.447343 1.53 83 43 30
0.350942 -0.44705 1.529 97 51 33
0.352697 -0.445589 1.524 99 53 35
0.3556 -0.445589 1.524 101 49 29
0.358032 -0.445004 1.522 104 52 32
0.360931 -0.445004 1.522 111 55 29
0.36383 -0.445004 1.522 118 62 36
0.36673 -0.445004 1.522 120 62 35
0.369629 -0.445004 1.522 119 61 34
0.371793 -0.444127 1.519 125 65 36
0.374687 -0.444127 1.519 122 62 33
0.377083 -0.443542 1.517 126 60 36
0.379722 -0.44325 1.516 130 64 40
0.38261 -0.44325 1.516 133 64 34
0.385497 -0.44325 1.516 135 66 36
0.388385 -0.44325 1.516 141 74 41
0.391272 -0.44325 1.516 142 75 42
0.39416 -0.44325 1.516 142 74 44
0.398881 -0.445296 1.523 141 73 43
0.402046 -0.445589 1.524 149 75 47
0.404949 -0.445589 1.524 146 72 44
0.407851 -0.445589 1.524 144 73 39
0.410754 -0.445589 1.524 148 77 43
0.413657 -0.445589 1.524 147 80 42
0.416833 -0.445881 1.525 149 82 44
0.419738 -0.445881 1.525 148 80 45
0.422643 -0.445881 1.525 150 82 47
0.425269 -0.445589 1.524 152 85 52
0.428171 -0.445589 1.524 151 84 51
0.431074 -0.445589 1.524 147 83 49
0.433977 -0.445589 1.524 147 83 49
0.43688 -0.445589 1.524 147 80 47
0.440071 -0.445881 1.525 148 81 48
0.442976 -0.445881 1.525 155 84 52
0.446173 -0.446173 1.526 157 86 54
0.449374 -0.446466 1.527 159 88 56
0.452283 -0.446466 1.527 164 93 61
0.454893 -0.446173 1.526 160 93 55
0.4578 -0.446173 1.526 161 94 56
0.460707 -0.446173 1.526 163 93 54
0.463613 -0.446173 1.526 163 93 54
0.46652 -0.446173 1.526 160 93 55
0.469427 -0.446173 1.526 160 93 55
0.472643 -0.446466 1.527 159 92 50
0.476174 -0.44705 1.529 157 90 48
0.4794 -0.447343 1.53 159 92 50
0.482314 -0.447343 1.53 156 89 47
0.485229 -0.447343 1.53 156 90 50
0.488143 -0.447343 1.53 156 90 50
0.491057 -0.447343 1.53 155 88 48
0.494294 -0.447635 1.531 155 88 48
0.497535 -0.447928 1.532 152 86 44
0.500453 -0.447928 1.532 151 85 43
0.503043 -0.447635 1.531 150 86 50
0.505959 -0.447635 1.531 151 87 51
0.508875 -0.447635 1.531 144 85 47
0.511791 -0.447635 1.531 141 82 44
0.514708 -0.447635 1.531 141 82 44
0.517286 -0.447343 1.53 140 81 43
0.5202 -0.447343 1.53 133 76 42
0.523456 -0.447635 1.531 133 76 42
0.526372 -0.447635 1.531 132 77 42
0.530326 -0.448512 1.534 130 75 40
0.53429 -0.44939 1.537 131 76 43
0.537218 -0.44939 1.537 127 72 39
0.53874 -0.44822 1.533 122 67 34
0.540953 -0.447635 1.531 124 69 36
0.54387 -0.447635 1.531 123 69 41
0.545357 -0.446466 1.527 120 66 38
0.547907 -0.446173 1.526 119 63 37
0.550813 -0.446173 1.526 120 64 38
0.552994 -0.445589 1.524 119 61 34
0.555897 -0.445589 1.524 119 61 34
0.5588 -0.445589 1.524 120 63 33
0.55986 -0.444127 1.519 121 64 34
0.562383 -0.443834 1.518 120 62 37
0.565274 -0.443834 1.518 118 60 35
0.567791 -0.443542 1.517 117 61 35
0.570305 -0.44325 1.516 118 62 36
0.573192 -0.44325 1.516 115 64 37
0.5757 -0.442957 1.515 113 62 35
0.577822 -0.442372 1.513 115 65 33
0.579552 -0.441495 1.51 118 68 36
0.582429 -0.441495 1.51 118 70 35
0.584917 -0.441203 1.509 117 69 34
0.587791 -0.441203 1.509 121 67 39
0.590666 -0.441203 1.509 118 64 36
0.59354 -0.441203 1.509 123 67 41
0.596414 -0.441203 1.509 125 69 43
0.599289 -0.441203 1.509 125 69 41
0.601764 -0.44091 1.508 124 68 40
0.603032 -0.439741 1.504 124 70 42
0.605897 -0.439741 1.504 127 73 45
0.608357 -0.439449 1.503 124 66 41
0.610813 -0.439156 1.502 127 69 44
0.613674 -0.439156 1.502 132 75 45
0.616535 -0.439156 1.502 133 76 46
0.619396 -0.439156 1.502 137 76 41
0.622257 -0.439156 1.502 138 77 42
0.625118 -0.439156 1.502 137 75 43
0.627561 -0.438864 1.501 140 78 46
0.63042 -0.438864 1.501 139 79 48
0.633279 -0.438864 1.501 139 79 48
0.636138 -0.438864 1.501 141 79 49
0.639423 -0.439156 1.502 143 81 51
0.642711 -0.439449 1.503 147 85 53
0.645574 -0.439449 1.503 147 85 53
0.646711 -0.438279 1.499 142 85 51
0.649567 -0.438279 1.499 144 87 53
0.650681 -0.43711 1.495 145 88 54
0.653529 -0.43711 1.495 145 88 54
0.656376 -0.43711 1.495 146 89 55
0.659224 -0.43711 1.495 145 88 54
0.662071 -0.43711 1.495 147 88 52
0.664919 -0.43711 1.495 149 90 54
0.667767 -0.43711 1.495 148 91 57
0.670614 -0.43711 1.495 148 91 57
0.674813 -0.437987 1.498 146 89 55
0.677667 -0.437987 1.498 149 92 58
0.682337 -0.439156 1.502 151 94 60
0.68611 -0.439741 1.504 148 91 57
0.688975 -0.439741 1.504 153 94 58
0.6923 -0.440033 1.505 154 95 59
0.696552 -0.44091 1.508 150 95 60
0.700352 -0.441495 1.51 150 95 60
0.703229 -0.441495 1.51 148 95 60
0.706572 -0.441788 1.511 146 93 58
0.70945 -0.441788 1.511 148 93 60
0.7095 -0.440033 1.505 150 95 62
0.711893 -0.439741 1.504 148 93 60
0.714758 -0.439741 1.504 146 91 58
0.717623 -0.439741 1.504 150 95 62
0.722883 -0.441203 1.509 147 92 59
0.3366 -0.444429 1.53 70 41 29
0.339514 -0.444429 1.53 78 37 27
0.342429 -0.444429 1.53 83 42 32
0.345117 -0.444138 1.529 84 43 26
0.34803 -0.444138 1.529 90 49 32
0.350942 -0.444138 1.529 101 56 33
0.352697 -0.442686 1.524 102 57 34
0.3556 -0.442686 1.524 102 53 25
0.358032 -0.442105 1.522 110 61 33
0.360931 -0.442105 1.522 120 62 35
0.36383 -0.442105 1.522 119 61 34
0.36673 -0.442105 1.522 121 61 32
0.369629 -0.442105 1.522 122 62 33
0.371793 -0.441233 1.519 122 60 32
0.374687 -0.441233 1.519 124 62 34
0.377083 -0.440652 1.517 129 64 37
0.379722 -0.440362 1.516 128 63 36
0.38261 -0.440362 1.516 133 66 33
0.385497 -0.440362 1.516 139 72 39
0.388385 -0.440362 1.516 140 76 42
0.391272 -0.440362 1.516 139 75 41
0.39416 -0.440362 1.516 138 76 44
0.398881 -0.442395 1.523 142 80 48
0.401782 -0.442395 1.523 147 79 46
0.404683 -0.442395 1.523 146 78 45
0.407851 -0.442686 1.524 146 79 41
0.410754 -0.442686 1.524 148 81 43
0.413657 -0.442686 1.524 148 82 44
0.416833 -0.442976 1.525 149 83 45
0.419738 -0.442976 1.525 146 82 46
0.422643 -0.442976 1.525 149 85 49
0.425269 -0.442686 1.524 152 85 50
0.42789 -0.442395 1.523 152 85 50
0.430791 -0.442395 1.523 154 86 51
0.433692 -0.442395 1.523 150 82 47
0.43688 -0.442686 1.524 151 80 46
0.440071 -0.442976 1.525 155 84 50
0.442976 -0.442976 1.525 154 87 49
0.445881 -0.442976 1.525 154 87 49
0.44908 -0.443267 1.526 159 87 51
0.451987 -0.443267 1.526 164 92 56
0.454893 -0.443267 1.526 163 91 55
0.4578 -0.443267 1.526 164 92 56
0.460707 -0.443267 1.526 163 93 54
0.463613 -0.443267 1.526 163 93 54
0.46652 -0.443267 1.526 160 94 54
0.469427 -0.443267 1.526 160 94 54
0.472643 -0.443557 1.527 160 94 52
0.476174 -0.444138 1.529 159 93 51
0.4794 -0.444429 1.53 160 93 55
0.482314 -0.444429 1.53 159 92 54
0.485229 -0.444429 1.53 158 87 53
0.488143 -0.444429 1.53 157 86 52
0.491057 -0.444429 1.53 156 89 51
0.494294 -0.444719 1.531 157 90 52
0.497535 -0.44501 1.532 159 92 54
0.500453 -0.44501 1.532 154 87 49
0.503043 -0.444719 1.531 149 85 49
0.505959 -0.444719 1.531 152 88 52
0.508875 -0.444719 1.531 147 88 50
0.511457 -0.444429 1.53 141 82 44
0.514371 -0.444429 1.53 144 77 42
0.517286 -0.444429 1.53 142 75 40
0.5202 -0.444429 1.53 138 76 44
0.523114 -0.444429 1.53 138 76 44
0.526029 -0.444429 1.53 137 77 46
0.530671 -0.445881 1.535 133 73 42
0.53429 -0.446462 1.537 128 71 37
0.537218 -0.446462 1.537 127 70 36
0.53874 -0.4453 1.533 125 65 32
0.540953 -0.444719 1.531 127 67 34
0.54387 -0.444719 1.531 122 66 38
0.545357 -0.443557 1.527 118 62 34
0.547907 -0.443267 1.526 120 66 40
0.550813 -0.443267 1.526 118 64 38
0.552994 -0.442686 1.524 117 59 34
0.555897 -0.442686 1.524 117 59 34
0.5588 -0.442686 1.524 120 62 35
0.55986 -0.441233 1.519 121 63 36
0.562383 -0.440943 1.518 118 62 34
0.565274 -0.440943 1.518 119 63 35
0.567791 -0.440652 1.517 115 64 37
0.570305 -0.440362 1.516 114 63 36
0.573192 -0.440362 1.516 116 65 38
0.5757 -0.440071 1.515 116 65 38
0.577822 -0.43949 1.513 118 65 30
0.579552 -0.438619 1.51 120 67 32
0.582429 -0.438619 1.51 119 69 33
0.584917 -0.438329 1.509 118 68 32
0.587791 -0.438329 1.509 119 69 37
0.590666 -0.438329 1.509 118 68 36
0.59354 -0.438329 1.509 120 64 36
0.596019 -0.438038 1.508 126 70 42
0.598891 -0.438038 1.508 126 70 42
0.600168 -0.436876 1.504 126 70 42
0.60223 -0.436295 1.502 122 68 40
0.605091 -0.436295 1.502 122 68 40
0.607548 -0.436005 1.501 123 69 43
0.61 -0.435714 1.5 125 71 45
0.612857 -0.435714 1.5 130 75 44
0.615714 -0.435714 1.5 130 75 44
0.618571 -0.435714 1.5 134 75 39
0.621429 -0.435714 1.5 136 77 41
0.624286 -0.435714 1.5 138 76 44
0.627143 -0.435714 1.5 140 78 46
0.63 -0.435714 1.5 137 72 45
0.632857 -0.435714 1.5 139 74 47
0.635714 -0.435714 1.5 143 81 53
0.638997 -0.436005 1.501 144 82 54
0.642711 -0.436586 1.503 146 87 51
0.645574 -0.436586 1.503 146 87 51
0.646711 -0.435424 1.499 143 88 53
0.649567 -0.435424 1.499 141 86 51
0.650681 -0.434262 1.495 142 85 55
0.653529 -0.434262 1.495 144 87 57
0.656376 -0.434262 1.495 146 89 55
0.659224 -0.434262 1.495 146 89 55
0.662071 -0.434262 1.495 146 91 56
0.664919 -0.434262 1.495 147 92 57
0.66732 -0.433971 1.494 145 89 52
0.670166 -0.433971 1.494 147 91 54
0.673011 -0.433971 1.494 148 92 55
0.675857 -0.433971 1.494 148 92 55
0.680066 -0.434843 1.497 150 96 58
0.684742 -0.436005 1.501 150 96 58
0.687601 -0.436005 1.501 153 96 62
0.69138 -0.436586 1.503 152 95 61
0.695167 -0.437167 1.505 148 91 57
0.699425 -0.438038 1.508 151 94 60
0.702297 -0.438038 1.508 153 98 65
0.706105 -0.438619 1.51 152 97 64
0.70945 -0.43891 1.511 151 96 61
0.7095 -0.437167 1.505 152 97 62
0.711893 -0.436876 1.504 151 94 60
0.714758 -0.436876 1.504 153 96 62
0.717623 -0.436876 1.504 152 97 64
0.722883 -0.438329 1.509 150 95 62
0.3366 -0.441514 1.53 68 37 26
0.339514 -0.441514 1.53 78 36 22
0.342429 -0.441514 1.53 84 42 28
0.345117 -0.441226 1.529 93 48 25
0.34803 -0.441226 1.529 96 51 28
0.350712 -0.440937 1.528 104 53 28
0.352697 -0.439783 1.524 105 54 29
0.3556 -0.439783 1.524 110 55 24
0.357797 -0.438917 1.521 118 63 32
0.360694 -0.438917 1.521 124 66 39
0.363591 -0.438917 1.521 121 63 36
0.366489 -0.438917 1.521 122 60 32
0.369386 -0.438917 1.521 122 60 32
0.371793 -0.43834 1.519 126 57 31
0.374687 -0.43834 1.519 128 59 33
0.377083 -0.437763 1.517 130 65 36
0.379722 -0.437474 1.516 131 66 37
0.38261 -0.437474 1.516 136 71 42
0.385497 -0.437474 1.516 137 72 43
0.388385 -0.437474 1.516 137 72 41
0.391272 -0.437474 1.516 139 74 43
0.39416 -0.437474 1.516 141 79 47
0.398881 -0.439494 1.523 142 80 48
0.401782 -0.439494 1.523 148 81 48
0.404683 -0.439494 1.523 147 80 47
0.407584 -0.439494 1.523 145 78 43
0.410754 -0.439783 1.524 148 81 46
0.413657 -0.439783 1.524 151 84 49
0.41656 -0.439783 1.524 149 82 47
0.419463 -0.439783 1.524 151 84 49
0.422366 -0.439783 1.524 149 82 47
0.42499 -0.439494 1.523 148 82 44
0.42789 -0.439494 1.523 149 83 45
0.430791 -0.439494 1.523 152 82 45
0.433692 -0.439494 1.523 152 82 45
0.43688 -0.439783 1.524 153 85 50
0.439783 -0.439783 1.524 154 86 51
0.442686 -0.439783 1.524 156 86 45
0.445881 -0.440071 1.525 158 88 47
0.448786 -0.440071 1.525 162 92 55
0.45169 -0.440071 1.525 162 92 55
0.454595 -0.440071 1.525 162 90 54
0.4575 -0.440071 1.525 163 91 55
0.460405 -0.440071 1.525 160 93 55
0.463613 -0.44036 1.526 161 94 56
0.466826 -0.440649 1.527 161 95 57
0.469734 -0.440649 1.527 160 94 56
0.473262 -0.441226 1.529 161 94 56
0.476486 -0.441514 1.53 161 94 56
0.4794 -0.441514 1.53 157 89 56
0.482314 -0.441514 1.53 159 91 58
0.485229 -0.441514 1.53 157 88 58
0.488143 -0.441514 1.53 155 86 56
0.491057 -0.441514 1.53 156 88 55
0.494294 -0.441803 1.531 153 85 52
0.497535 -0.442091 1.532 158 87 53
0.500453 -0.442091 1.532 159 88 54
0.503371 -0.442091 1.532 152 86 48
0.50629 -0.442091 1.532 151 85 47
0.508875 -0.441803 1.531 147 84 45
0.511457 -0.441514 1.53 145 82 43
0.514371 -0.441514 1.53 145 81 47
0.517286 -0.441514 1.53 142 78 44
0.5202 -0.441514 1.53 137 75 45
0.523114 -0.441514 1.53 138 76 46
0.526029 -0.441514 1.53 135 73 41
0.530671 -0.442957 1.535 131 69 37
0.53429 -0.443534 1.537 132 72 39
0.537218 -0.443534 1.537 130 70 37
0.53874 -0.44238 1.533 127 67 38
0.541307 -0.442091 1.532 127 67 38
0.544225 -0.442091 1.532 122 61 39
0.545357 -0.440649 1.527 123 62 40
0.547907 -0.44036 1.526 118 62 36
0.550813 -0.44036 1.526 120 64 38
0.553357 -0.440071 1.525 120 62 37
0.555897 -0.439783 1.524 119 61 36
0.5588 -0.439783 1.524 123 65 40
0.560229 -0.438629 1.52 119 61 36
0.562383 -0.438051 1.518 113 59 33
0.565274 -0.438051 1.518 115 61 35
0.567791 -0.437763 1.517 112 63 35
0.570681 -0.437763 1.517 113 64 36
0.57357 -0.437763 1.517 117 63 35
0.57608 -0.437474 1.516 116 62 34
0.578204 -0.436897 1.514 116 63 32
0.579936 -0.436031 1.511 118 65 34
0.582814 -0.436031 1.511 116 66 34
0.584917 -0.435454 1.509 118 68 36
0.586623 -0.434589 1.506 115 66 36
0.589491 -0.434589 1.506 115 66 36
0.591573 -0.434011 1.504 118 64 36
0.594043 -0.433723 1.503 120 66 38
0.596906 -0.433723 1.503 120 66 38
0.59897 -0.433146 1.501 122 68 40
0.601429 -0.432857 1.5 122 69 38
0.604286 -0.432857 1.5 118 65 34
0.607143 -0.432857 1.5 124 68 40
0.61 -0.432857 1.5 129 73 45
0.612857 -0.432857 1.5 130 72 45
0.615714 -0.432857 1.5 130 72 45
0.618571 -0.432857 1.5 133 71 43
0.621429 -0.432857 1.5 133 71 43
0.624286 -0.432857 1.5 138 70 44
0.626725 -0.432569 1.499 137 69 43
0.62958 -0.432569 1.499 136 66 43
0.632435 -0.432569 1.499 141 71 48
0.63529 -0.432569 1.499 138 75 50
0.638146 -0.432569 1.499 141 78 53
0.641856 -0.433146 1.501 143 82 47
0.644715 -0.433146 1.501 143 82 47
0.648006 -0.433434 1.502 140 83 49
0.650867 -0.433434 1.502 142 85 51
0.652422 -0.432569 1.499 144 87 57
0.65484 -0.43228 1.498 141 84 54
0.657693 -0.43228 1.498 143 88 53
0.659665 -0.431703 1.496 146 91 56
0.661629 -0.431126 1.494 144 89 54
0.664474 -0.431126 1.494 146 91 56
0.666873 -0.430837 1.493 145 92 57
0.669269 -0.430549 1.492 145 92 57
0.67211 -0.430549 1.492 148 93 58
0.674952 -0.430549 1.492 148 93 58
0.678249 -0.430837 1.493 150 96 58
0.682461 -0.431703 1.496 150 96 58
0.68531 -0.431703 1.496 153 96 62
0.68954 -0.432569 1.499 152 95 61
0.693319 -0.433146 1.501 149 92 58
0.697106 -0.433723 1.503 152 95 61
0.699969 -0.433723 1.503 153 98 65
0.704702 -0.434877 1.507 152 97 64
0.70945 -0.436031 1.511 153 98 63
0.712329 -0.436031 1.511 153 98 63
0.714733 -0.435743 1.51 151 94 60
0.71761 -0.435743 1.51 153 96 62
0.720486 -0.435743 1.51 150 95 62
0.72432 -0.43632 1.512 152 97 64
0.33704 -0.439173 1.532 74 43 32
0.339958 -0.439173 1.532 85 40 29
0.342429 -0.4386 1.53 90 45 34
0.345117 -0.438313 1.529 97 46 28
0.34803 -0.438313 1.529 100 49 31
0.350712 -0.438027 1.528 108 52 28
0.352697 -0.43688 1.524 114 58 34
0.3556 -0.43688 1.524 116 60 32
0.357797 -0.43602 1.521 115 59 31
0.360694 -0.43602 1.521 120 62 35
0.363591 -0.43602 1.521 121 63 36
0.366489 -0.43602 1.521 124 61 36
0.369386 -0.43602 1.521 126 63 38
0.371793 -0.435447 1.519 128 60 34
0.374687 -0.435447 1.519 131 63 37
0.377083 -0.434873 1.517 126 58 32
0.379722 -0.434587 1.516 126 58 32
0.38261 -0.434587 1.516 132 66 42
0.385497 -0.434587 1.516 137 71 47
0.388385 -0.434587 1.516 140 72 44
0.391789 -0.43516 1.518 142 74 46
0.39468 -0.43516 1.518 145 76 46
0.398881 -0.436593 1.523 146 77 47
0.401782 -0.436593 1.523 148 80 50
0.404683 -0.436593 1.523 147 79 49
0.407584 -0.436593 1.523 143 79 43
0.410754 -0.43688 1.524 145 81 45
0.413657 -0.43688 1.524 147 84 45
0.41656 -0.43688 1.524 150 87 48
0.419463 -0.43688 1.524 151 85 45
0.422366 -0.43688 1.524 151 85 45
0.42499 -0.436593 1.523 148 88 48
0.42789 -0.436593 1.523 152 92 52
0.430791 -0.436593 1.523 150 89 52
0.433692 -0.436593 1.523 147 86 49
0.43688 -0.43688 1.524 154 87 54
0.439783 -0.43688 1.524 154 87 54
0.442686 -0.43688 1.524 153 86 48
0.445881 -0.437167 1.525 155 88 50
0.448786 -0.437167 1.525 161 93 58
0.45169 -0.437167 1.525 161 93 58
0.454595 -0.437167 1.525 160 92 57
0.4575 -0.437167 1.525 160 92 57
0.460405 -0.437167 1.525 160 94 56
0.463613 -0.437453 1.526 160 94 56
0.467131 -0.438027 1.528 160 92 57
0.470042 -0.438027 1.528 160 92 57
0.473571 -0.4386 1.53 161 93 58
0.476797 -0.438887 1.531 160 92 57
0.479713 -0.438887 1.531 159 91 56
0.482314 -0.4386 1.53 156 88 53
0.485229 -0.4386 1.53 155 88 53
0.488462 -0.438887 1.531 156 89 54
0.491378 -0.438887 1.531 156 89 54
0.494294 -0.438887 1.531 156 89 54
0.497535 -0.439173 1.532 154 86 53
0.500453 -0.439173 1.532 155 87 54
0.5037 -0.43946 1.533 152 85 47
0.50662 -0.43946 1.533 147 80 42
0.509208 -0.439173 1.532 147 84 45
0.511457 -0.4386 1.53 150 87 48
0.514371 -0.4386 1.53 143 84 48
0.517286 -0.4386 1.53 137 78 42
0.5202 -0.4386 1.53 137 75 47
0.523114 -0.4386 1.53 138 76 48
0.526029 -0.4386 1.53 136 71 40
0.531017 -0.44032 1.536 133 68 37
0.53429 -0.440607 1.537 133 73 40
0.537218 -0.440607 1.537 128 68 35
0.539443 -0.440033 1.535 127 70 40
0.541307 -0.439173 1.532 126 69 39
0.544225 -0.439173 1.532 124 66 41
0.546071 -0.438313 1.529 124 66 41
